ply
format ascii 1.0
element vertex 793
property float x 
property float y
property float z
property float nx 
property float ny
property float nz
end_header
81.172791 69.943636 214.348549 -0.071024 0.014085 0.997375 
87.904436 71.830142 214.220416 0.182438 -0.062106 0.981254 
88.557353 71.867739 214.105349 0.187782 -0.104183 0.976670 
88.925376 72.145912 214.024417 0.123916 -0.145000 0.981641 
89.710580 72.076123 213.972679 0.000959 -0.201189 0.979552 
90.354431 72.549365 214.031201 -0.185517 -0.114590 0.975937 
90.871865 73.055839 214.147866 -0.355257 0.079638 0.931370 
89.813038 71.003216 213.996793 0.196977 -0.078647 0.977249 
90.170974 71.489456 213.938328 -0.084760 -0.246890 0.965330 
77.086125 67.621462 214.482609 0.121996 -0.406414 0.905508 
77.735282 67.985737 214.429551 0.099205 -0.321906 0.941560 
78.214480 68.334694 214.407679 0.067157 -0.333395 0.940392 
78.894191 68.553543 214.386498 0.042606 -0.210965 0.976565 
79.640181 68.827234 214.354310 -0.006795 -0.088123 0.996086 
87.966815 71.136051 214.353838 0.219444 -0.011332 0.975559 
88.574780 71.306772 214.197741 0.233200 -0.053081 0.970979 
89.228007 71.533191 214.038115 0.181508 -0.132488 0.974424 
90.579441 71.688138 214.039644 -0.293588 -0.231489 0.927480 
90.963386 72.202139 214.243863 -0.507608 -0.069018 0.858819 
89.963140 70.407306 214.097942 0.226979 -0.006521 0.973878 
90.556555 71.109506 213.955311 -0.142791 -0.195427 0.970268 
74.397916 65.645210 214.414777 0.260963 -0.790873 0.553550 
74.733171 65.686359 214.283932 0.082827 -0.644176 0.760380 
90.892571 70.709664 213.990358 -0.151748 -0.138121 0.978721 
75.688396 66.513744 214.518623 0.069658 -0.509750 0.857498 
76.513343 66.994628 214.485062 0.101913 -0.317010 0.942931 
77.113106 67.069996 214.447585 -0.005188 -0.110084 0.993909 
77.654025 67.393755 214.445605 -0.020806 -0.061240 0.997906 
78.351001 67.836781 214.429403 -0.023804 -0.017044 0.999571 
88.626617 70.590713 214.361361 0.278474 0.021584 0.960201 
89.266262 70.836662 214.145756 0.261389 -0.037769 0.964494 
91.003712 71.032580 214.061687 -0.405378 -0.248358 0.879765 
91.207143 71.421198 214.283450 -0.610327 -0.193711 0.768100 
74.040261 65.198054 214.299129 0.254919 -0.675623 0.691773 
75.159917 65.829335 214.317872 -0.112763 -0.458965 0.881269 
90.155046 69.804034 214.231466 0.268416 0.052768 0.961857 
91.222298 70.594254 214.071488 -0.370774 -0.162150 0.914458 
73.054469 64.670520 214.525461 0.246269 -0.874366 0.418134 
73.593943 64.928171 214.386038 0.273934 -0.760720 0.588443 
91.516537 70.325241 214.181674 -0.466699 -0.139749 0.873305 
75.685372 65.714477 214.410117 -0.253630 -0.092383 0.962880 
76.328970 66.210711 214.510625 -0.097939 -0.031528 0.994693 
76.880125 66.605893 214.500140 -0.047237 0.023863 0.998599 
77.505045 66.708765 214.587578 -0.129059 0.179002 0.975347 
78.197685 67.149110 214.601628 -0.134914 0.236078 0.962323 
88.982321 69.900254 214.508268 0.329056 0.109804 0.937905 
89.456025 70.162237 214.286243 0.306463 0.047083 0.950717 
91.449968 70.763789 214.250671 -0.628005 -0.234175 0.742140 
72.679611 64.224976 214.282569 0.133437 -0.813913 0.565455 
75.164844 65.290223 214.245058 -0.266632 -0.090313 0.959558 
90.324063 69.410183 214.329913 0.300270 0.120193 0.946251 
91.882606 70.290575 214.446262 -0.693817 -0.240561 0.678784 
65.145853 61.752276 214.499753 0.110558 -0.986779 -0.118508 
65.709002 61.955775 214.347252 0.080562 -0.990446 -0.111926 
66.338993 62.173880 214.264323 0.048645 -0.991798 -0.118200 
67.003931 62.378455 214.251944 0.007759 -0.993158 -0.116518 
67.743940 62.585505 214.266215 -0.005551 -0.994167 -0.107709 
68.540231 62.802746 214.270770 -0.008855 -0.997512 -0.069941 
69.354937 63.025112 214.263283 -0.000601 -0.999993 0.003653 
70.140352 63.252167 214.260798 0.006115 -0.992917 0.118655 
70.838699 63.462141 214.271218 0.015818 -0.965915 0.258375 
71.470982 63.671308 214.278233 0.050075 -0.924431 0.378048 
72.123446 63.892701 214.236571 0.101287 -0.854466 0.509537 
75.101224 64.804948 214.281304 -0.289764 0.117666 0.949838 
90.590008 68.993506 214.465685 0.319390 0.177807 0.930792 
75.556962 65.002214 214.462370 -0.367294 0.170628 0.914320 
76.279247 65.350745 214.729885 -0.309679 0.267576 0.912415 
77.009579 66.028182 214.729352 -0.173592 0.295614 0.939403 
89.787964 69.451193 214.474380 0.366429 0.155348 0.917386 
64.566525 61.470629 214.170839 0.174525 -0.979666 -0.098974 
74.839385 64.453896 214.285043 -0.201252 0.181171 0.962639 
91.100665 68.404785 214.643166 0.375796 0.249590 0.892459 
92.388798 69.639407 214.573830 -0.617411 -0.338566 0.710054 
63.115362 60.514740 214.780030 0.422580 -0.893330 -0.152930 
63.637427 60.909708 214.546965 0.344513 -0.928149 -0.140887 
64.140898 61.244561 214.365975 0.283271 -0.946898 -0.152123 
74.818631 64.043053 214.450807 -0.204863 0.319767 0.925084 
92.795991 69.094447 214.579067 -0.515358 -0.336814 0.788012 
75.249971 64.348991 214.525283 -0.347235 0.311079 0.884679 
75.885267 64.472838 214.890585 -0.408102 0.378011 0.831000 
90.567663 68.616327 214.669859 0.421633 0.267098 0.866536 
92.887413 69.320061 214.761983 -0.722292 -0.425360 0.545310 
62.623134 60.021548 214.383690 0.525195 -0.844291 -0.106502 
74.607986 63.455428 214.706624 -0.244424 0.421359 0.873335 
91.512959 67.921813 214.812819 0.491081 0.321640 0.809560 
93.305083 68.903736 214.846643 -0.701726 -0.467164 0.537901 
62.272506 59.590981 214.724005 0.649117 -0.744147 -0.157772 
74.290792 62.892202 214.889221 -0.315771 0.462431 0.828521 
91.966539 67.723644 214.767635 0.428419 0.298277 0.852929 
93.690670 68.449709 214.757681 -0.589686 -0.535246 0.604799 
75.064101 63.805608 214.704426 -0.293159 0.425337 0.856239 
75.473534 63.878624 214.931318 -0.369821 0.447979 0.813970 
61.974694 59.054876 214.433055 0.777261 -0.620388 -0.104806 
73.940870 62.455418 214.983881 -0.333350 0.498273 0.800376 
92.272393 67.283626 215.010596 0.563666 0.362770 0.742077 
94.242109 68.160861 214.904361 -0.658928 -0.627597 0.414653 
61.803093 58.543407 214.822464 0.866578 -0.491659 -0.085522 
73.202500 61.759242 214.891607 -0.452828 0.449719 0.769870 
73.560987 61.996251 215.035249 -0.413777 0.488157 0.768434 
94.550986 67.742889 214.618931 -0.461643 -0.693774 0.552778 
95.207416 67.496409 214.635763 -0.554765 -0.775583 0.301176 
74.311037 62.606709 215.116768 -0.338707 0.540932 0.769851 
91.768351 67.579498 214.993146 0.559310 0.420457 0.714414 
61.752906 57.984747 214.554260 0.957971 -0.260288 0.120592 
72.902968 61.294155 214.910040 -0.513092 0.412717 0.752596 
92.756329 66.733544 215.169273 0.707989 0.279425 0.648594 
95.693913 67.298705 214.755597 -0.691537 -0.696785 0.190439 
72.525309 60.859515 214.767879 -0.556171 0.358450 0.749792 
93.174743 66.568520 214.915851 0.667118 0.165321 0.726376 
73.180923 61.408524 215.112475 -0.487072 0.453755 0.746235 
73.438974 61.544013 215.265321 -0.468844 0.481325 0.740616 
95.459300 67.509348 215.023119 -0.687407 -0.722269 0.076160 
61.756874 57.331432 214.860766 0.899286 -0.143294 0.413222 
72.236829 60.273669 214.732187 -0.583057 0.326983 0.743725 
93.490615 66.023289 215.044788 0.766375 0.172895 0.618690 
96.009251 67.141687 214.851576 -0.695155 -0.687205 0.210973 
61.622473 56.921795 215.210451 0.868019 -0.170445 0.466359 
96.449672 66.946142 215.032524 -0.629333 -0.768068 0.118373 
61.564958 57.319108 215.305814 0.903134 -0.368294 0.220702 
72.592673 60.342174 215.085050 -0.598463 0.340086 0.725385 
93.061927 66.326206 215.238119 0.775368 0.261146 0.574984 
95.923660 67.272979 215.209823 -0.705450 -0.708760 -0.000307 
61.630684 56.396710 215.406354 0.811706 -0.113734 0.572886 
72.164861 59.605763 214.945865 -0.554339 0.331782 0.763302 
93.792764 65.359042 215.251727 0.861658 0.182802 0.473422 
97.055933 66.782879 215.311970 -0.528197 -0.848430 -0.034277 
66.547370 57.351348 215.260221 -0.031638 0.496372 0.867533 
67.271586 57.619764 215.194829 0.057948 0.487387 0.871261 
67.990818 57.765551 215.142599 0.139483 0.481009 0.865549 
94.136045 65.107866 214.970022 0.797948 0.165598 0.579531 
97.642198 66.648194 215.310468 -0.417491 -0.906704 -0.059914 
98.288423 66.570584 215.104816 -0.304713 -0.947763 -0.094321 
98.855842 66.561232 214.952704 -0.261327 -0.953794 -0.148275 
99.586635 66.557004 215.039051 -0.289683 -0.929360 -0.228854 
96.801072 66.886617 215.566537 -0.572843 -0.814461 -0.092214 
61.662967 55.695455 215.603136 0.662885 -0.096385 0.742491 
65.980194 57.066227 215.309415 -0.110292 0.493795 0.862556 
68.337327 57.500442 215.369245 0.155606 0.414678 0.896565 
72.287947 59.085268 215.285477 -0.546945 0.318443 0.774238 
94.371962 64.580117 215.194980 0.827603 0.238048 0.508338 
100.241932 66.506114 215.257457 -0.358702 -0.887657 -0.288787 
65.119298 56.374098 215.436869 -0.187631 0.450736 0.872715 
65.695173 56.677657 215.483561 -0.149749 0.448945 0.880922 
68.737233 57.432958 215.412644 0.182751 0.395683 0.900021 
61.369584 55.576901 215.899678 0.752898 -0.230762 0.616355 
66.326085 56.800826 215.609042 -0.062217 0.431893 0.899776 
67.097319 57.150019 215.529885 0.036594 0.426911 0.903553 
67.816345 57.368941 215.445685 0.110786 0.412830 0.904045 
94.046614 64.889458 215.357769 0.872868 0.227632 0.431608 
99.948020 66.474138 215.720501 -0.360118 -0.883528 -0.299488 
61.930137 55.174159 215.631079 0.462513 0.110275 0.879728 
64.532529 56.080694 215.374364 -0.165823 0.437367 0.883863 
69.009512 57.277629 215.511025 0.184635 0.369796 0.910583 
72.384582 58.414245 215.654051 -0.528646 0.320325 0.786082 
94.657390 63.964282 215.557708 0.867869 0.277663 0.411956 
100.619636 66.405850 215.618392 -0.414456 -0.851397 -0.321481 
62.379669 55.107889 215.548107 0.240129 0.233676 0.942196 
62.967308 55.224332 215.481143 0.065479 0.303434 0.950600 
63.632437 55.423731 215.485673 -0.063574 0.372660 0.925788 
64.212700 55.665050 215.518157 -0.145161 0.415421 0.897972 
69.579536 57.045147 215.647326 0.154801 0.357649 0.920936 
70.498911 57.168828 215.592374 0.068963 0.378494 0.923031 
71.218356 57.340720 215.596123 -0.064948 0.388472 0.919169 
71.800658 57.576712 215.656405 -0.243293 0.383086 0.891097 
72.205729 57.843589 215.751265 -0.427014 0.355013 0.831640 
101.201768 66.304350 215.545969 -0.455695 -0.827395 -0.328268 
101.851711 66.171185 215.497288 -0.452663 -0.827998 -0.330930 
102.541563 66.056092 215.400946 -0.408738 -0.856538 -0.315080 
61.589914 55.052640 215.875402 0.603119 0.007474 0.797617 
64.794005 55.797568 215.678016 -0.185226 0.432459 0.882423 
65.649194 56.135761 215.823272 -0.149016 0.427655 0.891575 
66.406010 56.357851 215.932578 -0.056345 0.404186 0.912940 
67.000460 56.658610 215.852980 0.030265 0.391603 0.919636 
67.735666 56.900177 215.761461 0.107700 0.371873 0.922015 
68.583041 57.104684 215.635388 0.155958 0.356206 0.921300 
94.215766 64.468790 215.685507 0.893368 0.273724 0.356327 
100.952519 66.286367 215.953794 -0.452368 -0.818655 -0.353789 
95.031526 63.412512 215.683177 0.868944 0.306614 0.388490 
102.948038 65.935129 215.880225 -0.345934 -0.878644 -0.329110 
103.599008 65.924649 215.793528 -0.252247 -0.911068 -0.326077 
104.244202 65.985385 215.704220 -0.141716 -0.923250 -0.357107 
104.752954 66.105836 215.572232 -0.048908 -0.911193 -0.409067 
105.436874 66.247341 215.705380 -0.010511 -0.851792 -0.523775 
106.292397 66.537569 215.661911 0.030582 -0.734723 -0.677678 
107.186233 66.861086 215.623244 0.011048 -0.568752 -0.822435 
108.101798 67.017480 215.648621 -0.132541 -0.471239 -0.871990 
108.747770 67.093507 215.570962 -0.286906 -0.479018 -0.829594 
61.700389 54.412723 216.095921 0.525540 0.117707 0.842587 
62.152854 54.628182 215.848253 0.309909 0.211025 0.927052 
62.837555 54.712592 215.759466 0.085554 0.318111 0.944185 
63.415136 54.947806 215.711166 -0.049539 0.361126 0.931200 
64.182497 55.115327 215.862184 -0.158321 0.404976 0.900516 
65.053816 55.449029 216.027318 -0.190548 0.429588 0.882693 
69.873745 56.497273 215.988625 0.135086 0.335226 0.932403 
70.436076 56.685543 215.894993 0.071725 0.356473 0.931548 
71.114481 56.850124 215.885348 -0.037178 0.398249 0.916524 
71.723781 57.080164 215.927618 -0.196717 0.426919 0.882634 
72.210228 57.400526 216.002651 -0.393672 0.419013 0.818200 
95.316200 62.918031 216.016503 0.860829 0.345021 0.374077 
109.235522 66.868075 215.680233 -0.376135 -0.444417 -0.813029 
95.735685 62.672303 215.633690 0.796464 0.375463 0.473997 
109.749939 66.752451 215.588979 -0.522364 -0.468196 -0.712691 
61.759118 53.935599 216.332083 0.565542 0.216680 0.795746 
62.138951 54.001599 216.171830 0.287490 0.249218 0.924792 
62.725154 54.156825 216.065378 0.084820 0.304485 0.948733 
63.474848 54.439957 216.031111 -0.072420 0.366237 0.927699 
70.437815 56.256785 216.160139 0.066029 0.367997 0.927480 
71.014690 56.383609 216.168820 -0.035145 0.407975 0.912316 
71.629591 56.584304 216.230424 -0.178247 0.461583 0.869005 
72.163941 56.900606 216.302395 -0.351758 0.474510 0.806912 
105.526196 66.067714 216.201853 -0.109500 -0.836923 -0.536255 
106.123839 66.216273 216.116308 -0.082079 -0.770396 -0.632261 
106.939779 66.379557 216.085699 -0.097603 -0.646325 -0.756794 
107.951715 66.473561 216.096933 -0.166617 -0.511079 -0.843230 
108.767398 66.692555 215.901052 -0.246230 -0.424585 -0.871262 
96.011937 62.258183 215.886903 0.782261 0.402268 0.475655 
110.072255 66.395226 215.803399 -0.534326 -0.392922 -0.748404 
96.309882 62.045245 215.825990 0.729027 0.431072 0.531692 
110.426731 66.198145 215.747078 -0.690901 -0.354145 -0.630267 
95.749875 62.375282 216.159274 0.834118 0.371765 0.407476 
108.897849 66.158944 216.320225 -0.286845 -0.450128 -0.845639 
109.553578 66.401150 215.988326 -0.384353 -0.397296 -0.833324 
96.761136 61.543329 216.064445 0.701874 0.412687 0.580571 
110.816888 65.700431 215.906378 -0.722242 -0.358431 -0.591519 
95.839472 62.077737 216.569657 0.843531 0.361166 0.397510 
96.169948 61.910878 216.265013 0.786577 0.399689 0.470685 
109.723091 65.819706 216.433490 -0.404506 -0.418298 -0.813266 
110.212870 66.004405 216.072097 -0.533077 -0.354021 -0.768439 
97.324196 60.871619 216.377085 0.634145 0.370966 0.678413 
111.115203 65.080372 216.372291 -0.693622 -0.381057 -0.611297 
97.823392 60.768104 216.139111 0.559178 0.415358 0.717494 
110.463672 65.450362 216.458188 -0.551142 -0.402604 -0.730857 
98.240809 60.421322 216.257474 0.506120 0.384633 0.771946 
111.633280 64.643578 216.326332 -0.807118 -0.331551 -0.488503 
98.857148 60.254952 216.131147 0.452269 0.409603 0.792261 
97.851603 60.364962 216.511749 0.547394 0.329676 0.769203 
99.169510 59.705557 216.475887 0.384618 0.333213 0.860836 
111.863586 64.184441 216.644902 -0.831902 -0.307843 -0.461706 
112.183656 63.832814 216.487380 -0.934050 -0.192674 -0.300710 
97.999560 59.739485 216.897321 0.501407 0.215819 0.837862 
98.475944 59.979725 216.519255 0.461690 0.317528 0.828262 
112.091455 63.776640 216.817006 -0.882101 -0.203242 -0.424960 
99.467654 59.282175 216.686683 0.337076 0.292624 0.894847 
112.440110 63.225850 216.634529 -0.948000 -0.106667 -0.299864 
83.131084 54.190025 216.585575 0.000982 -0.969294 -0.245902 
83.654379 54.328938 216.461772 -0.041925 -0.976800 -0.210009 
99.914865 59.079859 216.718256 0.297677 0.295727 0.907708 
97.817397 59.162225 217.293595 0.507956 0.098228 0.855764 
98.394644 59.110079 217.082475 0.398441 0.164350 0.902349 
98.859230 59.339130 216.814360 0.377766 0.245841 0.892667 
82.630187 54.043818 216.475854 0.038996 -0.963577 -0.264574 
84.074855 54.407845 216.943907 -0.054923 -0.967832 -0.245530 
100.191735 58.797286 216.844495 0.271947 0.292973 0.916631 
112.730732 62.402551 216.848958 -0.947963 -0.040841 -0.315750 
79.596248 52.593536 217.081046 0.237552 -0.938256 -0.251485 
80.171350 52.916704 216.951397 0.206817 -0.940975 -0.267943 
80.868799 53.272466 216.889297 0.168503 -0.943941 -0.283871 
81.616983 53.608850 216.878552 0.122641 -0.949218 -0.289730 
82.368183 53.910777 216.837400 0.077170 -0.952468 -0.294702 
84.740066 54.528826 217.118731 -0.097680 -0.965936 -0.239639 
85.481660 54.651895 217.001644 -0.135904 -0.962425 -0.235094 
86.150911 54.736858 216.922184 -0.166627 -0.955604 -0.243013 
86.740704 54.802489 216.756385 -0.183419 -0.953544 -0.238982 
87.380113 54.844687 217.031013 -0.167996 -0.946827 -0.274401 
88.033903 54.961466 216.801663 -0.095630 -0.938690 -0.331235 
88.755843 55.157429 216.654528 -0.002201 -0.900925 -0.433970 
89.507094 55.462934 216.508956 0.078076 -0.824667 -0.560204 
100.641399 58.621195 216.891654 0.237809 0.307918 0.921213 
82.972162 54.117386 216.871301 0.032449 -0.958646 -0.282745 
83.525400 54.269165 216.971530 -0.013362 -0.964171 -0.264945 
97.910494 58.536830 217.512368 0.469764 0.062667 0.880565 
98.410983 58.596767 217.314287 0.359264 0.118019 0.925744 
99.008065 58.688789 217.120950 0.307521 0.188869 0.932609 
99.632444 58.833156 216.921447 0.291328 0.256332 0.921641 
79.001206 52.267204 216.720344 0.300637 -0.918133 -0.258167 
90.008683 55.375372 216.990537 -0.006620 -0.769070 -0.639130 
100.951929 58.253038 217.088222 0.204764 0.313254 0.927332 
112.956195 61.644953 217.002765 -0.952439 0.003713 -0.304707 
78.026749 51.501462 217.178134 0.435592 -0.898685 -0.051238 
78.599983 51.964527 216.933733 0.365466 -0.903676 -0.223169 
90.729161 55.432437 217.182943 -0.042581 -0.679988 -0.731986 
91.413281 55.663393 217.094594 -0.056548 -0.611274 -0.789397 
92.158101 55.711648 217.173661 -0.106655 -0.582375 -0.805893 
92.996330 55.918102 217.046792 -0.162289 -0.611351 -0.774540 
93.760458 56.000189 216.973479 -0.257561 -0.678429 -0.688038 
94.399802 55.952429 216.971683 -0.433588 -0.741975 -0.511346 
104.145939 58.640343 216.747089 0.153548 0.496411 0.854400 
104.921529 58.628669 216.802047 0.142752 0.517936 0.843424 
87.464849 54.802796 217.514008 -0.194837 -0.933854 -0.299925 
88.028484 54.871627 217.375182 -0.166661 -0.924218 -0.343576 
88.711639 54.993729 217.218869 -0.110743 -0.894322 -0.433502 
89.407836 55.177320 217.081328 -0.047286 -0.834351 -0.549202 
97.957640 58.057386 217.681978 0.477997 0.064852 0.875964 
98.403406 58.048728 217.532578 0.333175 0.087005 0.938842 
99.106800 58.019075 217.406169 0.238189 0.144138 0.960464 
99.768546 58.230078 217.221671 0.228641 0.224275 0.947325 
100.302787 58.424443 217.051548 0.238550 0.279867 0.929929 
77.631782 51.040695 216.982747 0.581272 -0.812974 0.034596 
94.698649 55.757828 217.222395 -0.451019 -0.555919 -0.698238 
101.326483 57.893785 217.290722 0.169739 0.325327 0.930242 
103.499279 58.453398 216.888800 0.156106 0.460907 0.873611 
105.144171 58.283251 217.134330 0.125844 0.485756 0.864988 
113.159800 60.866593 217.163541 -0.963303 0.018723 -0.267762 
77.399716 50.749342 217.078459 0.640545 -0.753838 0.146390 
95.030299 55.559914 217.235224 -0.754941 -0.417919 -0.505379 
101.944991 57.839934 217.317006 0.147252 0.352985 0.923969 
102.666559 57.954513 217.249827 0.138682 0.393230 0.908921 
103.262035 58.125110 217.144147 0.137184 0.428044 0.893285 
77.554765 51.064800 217.297362 0.538108 -0.835033 0.114714 
92.252413 55.333411 217.565249 -0.116859 -0.545782 -0.829739 
92.858981 55.503297 217.464529 -0.129915 -0.536097 -0.834099 
93.597413 55.655692 217.372527 -0.167874 -0.539117 -0.825331 
94.263029 55.741817 217.293959 -0.247180 -0.552846 -0.795779 
99.978720 57.586223 217.508756 0.150632 0.190155 0.970129 
100.663654 57.857141 217.341571 0.176486 0.275149 0.945064 
103.975983 58.106024 217.194511 0.123321 0.451633 0.883640 
104.581357 58.318530 217.061057 0.124768 0.483737 0.866274 
77.193194 50.191736 216.896992 0.765701 -0.606032 0.215471 
95.359055 55.154671 217.183261 -0.956461 -0.226357 -0.184241 
105.448609 57.997759 217.390608 0.123723 0.435863 0.891469 
113.379143 60.075511 217.289126 -0.982503 0.007774 -0.186087 
106.044931 57.973426 217.428789 0.154108 0.423340 0.892768 
106.766995 58.033222 217.382234 0.177253 0.416181 0.891838 
107.399064 58.025435 217.370703 0.207579 0.401342 0.892096 
100.790195 57.266040 217.644183 0.109581 0.233449 0.966175 
101.570014 57.412138 217.577429 0.120970 0.300402 0.946110 
102.582012 57.378392 217.633291 0.102363 0.349063 0.931492 
103.434124 57.641415 217.507817 0.106066 0.396525 0.911876 
104.201339 57.647797 217.562277 0.099800 0.408980 0.907070 
104.815311 57.898894 217.419704 0.110913 0.433350 0.894375 
76.907496 49.465280 217.103182 0.782933 -0.459851 0.418990 
95.651175 54.496392 217.301208 -0.985373 -0.102962 -0.135793 
107.816472 57.774093 217.518395 0.229937 0.327258 0.916532 
113.580200 59.341591 217.413704 -0.994569 0.035578 -0.097812 
76.741485 48.922852 217.267726 0.776208 -0.374627 0.507106 
108.266554 57.664217 217.527149 0.288681 0.296184 0.910461 
76.068984 49.049543 217.957244 0.629467 -0.304843 0.714732 
76.322034 49.287851 217.755362 0.610841 -0.380135 0.694529 
76.611618 49.360687 217.486895 0.688142 -0.426195 0.587213 
98.829826 55.319447 218.097009 0.284092 -0.080438 0.955417 
99.125010 55.415639 218.034171 0.098334 -0.104015 0.989703 
103.376883 57.077288 217.874502 0.080846 0.337787 0.937744 
104.071910 57.211564 217.845221 0.081778 0.354758 0.931375 
104.808918 57.354131 217.808425 0.096767 0.373224 0.922681 
105.704524 57.510050 217.752208 0.125955 0.386222 0.913766 
106.613092 57.595036 217.700677 0.175162 0.368000 0.913178 
107.330746 57.667125 217.621773 0.199464 0.334664 0.920985 
76.795444 48.231803 217.186904 0.835744 -0.273017 0.476438 
95.910894 53.795278 217.469528 -0.990328 -0.087595 -0.107601 
108.585158 57.369349 217.632079 0.315750 0.199127 0.927712 
113.724065 58.682506 217.603250 -0.995937 0.080733 -0.039898 
76.580748 47.966994 217.543260 0.803471 -0.214990 0.555170 
109.000726 57.170777 217.609556 0.390020 0.135967 0.910713 
76.064912 48.569162 218.003920 0.691747 -0.215624 0.689197 
76.427914 48.674535 217.642705 0.716492 -0.297701 0.630883 
98.976780 54.733623 218.179791 0.297899 -0.056745 0.952909 
99.409487 54.894232 218.088692 0.084387 -0.075568 0.993563 
106.543721 57.144097 218.008226 0.181579 0.342762 0.921707 
107.347606 57.120973 217.954101 0.244220 0.291082 0.925002 
108.047502 57.326313 217.745046 0.252245 0.229045 0.940165 
76.642256 47.331472 217.624100 0.839565 -0.137447 0.525584 
96.168596 53.069854 217.683687 -0.997479 -0.059422 -0.038798 
109.309157 56.644235 217.700419 0.417267 0.028730 0.908330 
113.827058 57.961171 217.819693 -0.984294 0.176501 -0.003550 
113.849795 57.429637 217.969266 -0.945634 0.323678 -0.031773 
76.272856 47.947974 217.921940 0.760865 -0.165044 0.627570 
99.155046 54.067072 218.286266 0.314086 -0.021219 0.949157 
99.633966 54.213023 218.177157 0.116355 -0.048782 0.992009 
100.059605 54.392438 218.157825 -0.048269 -0.084016 0.995295 
108.181099 56.627867 218.059083 0.334842 0.155535 0.929349 
108.702631 56.915782 217.803080 0.334456 0.109629 0.936013 
76.727913 46.657940 217.804033 0.871239 -0.029263 0.489985 
96.397941 52.291198 217.870847 -0.998983 0.029128 0.034421 
109.567717 55.886706 217.812145 0.448596 -0.068632 0.891096 
113.791360 56.931238 217.801021 -0.875125 0.482918 0.030753 
76.374364 47.163679 218.071374 0.827527 -0.061113 0.558089 
99.337940 53.408102 218.429563 0.355566 0.058219 0.932836 
99.877713 53.518921 218.290985 0.158886 -0.001408 0.987296 
100.490374 53.680726 218.264579 -0.035588 -0.064835 0.997261 
108.524019 55.895523 218.248968 0.398507 0.026224 0.916790 
108.933864 56.245472 217.975003 0.399115 0.020674 0.916668 
113.795894 57.203668 218.212941 -0.904097 0.419362 -0.082118 
76.897850 46.066538 217.946575 0.893465 0.081799 0.441620 
96.550343 51.445603 218.021709 -0.987582 0.156983 0.006168 
109.656887 55.216591 217.905851 0.466529 -0.169169 0.868178 
113.676336 56.523428 217.821130 -0.824257 0.561581 0.072294 
109.413827 54.852402 218.079646 0.464317 -0.205991 0.861381 
76.551188 46.461668 218.231918 0.867508 0.050780 0.494824 
96.527091 51.478593 218.417529 -0.974472 0.224103 0.013530 
99.501985 52.836359 218.629469 0.442242 0.213739 0.871056 
100.073890 52.864782 218.453741 0.264559 0.113719 0.957641 
100.713883 52.943337 218.381690 0.052345 0.002147 0.998627 
101.423705 53.041045 218.431072 -0.117082 -0.079136 0.989964 
108.634012 55.288631 218.378703 0.410763 -0.089235 0.907365 
109.126100 55.430447 218.122989 0.443279 -0.096978 0.891123 
77.070392 45.678570 218.022332 0.892435 0.178432 0.414393 
96.632327 50.671032 217.988380 -0.975122 0.211193 -0.067334 
109.389004 54.456647 218.115087 0.464045 -0.309093 0.830135 
113.499112 56.090543 217.914523 -0.789381 0.592857 0.159367 
77.363275 45.230103 218.068647 0.886850 0.271195 0.374100 
109.208996 54.247020 218.206457 0.423258 -0.356034 0.833122 
113.280823 55.458824 218.242063 -0.807737 0.530855 0.256426 
76.866433 45.748625 218.369588 0.883303 0.181840 0.432099 
96.551206 50.911856 218.376772 -0.960668 0.261158 -0.094407 
100.224667 52.295922 218.717200 0.459491 0.330674 0.824332 
100.907830 52.297798 218.551038 0.199651 0.130317 0.971163 
101.616717 52.358945 218.532504 -0.014722 -0.005337 0.999877 
102.367608 52.461292 218.627941 -0.165331 -0.108786 0.980220 
108.913568 54.608714 218.344435 0.427825 -0.233089 0.873290 
77.824682 44.621053 218.189404 0.871490 0.367811 0.324377 
96.666106 50.151579 217.986183 -0.960280 0.266113 -0.083942 
108.984678 53.912044 218.277166 0.417662 -0.421814 0.804756 
113.039693 54.835758 218.124758 -0.755481 0.423260 0.500100 
96.634269 49.808355 218.146868 -0.938557 0.315698 -0.139449 
107.953855 52.623489 218.542505 0.405614 -0.507648 0.760112 
108.462668 53.335870 218.446516 0.392486 -0.489856 0.778457 
77.517278 44.842144 218.455267 0.853430 0.354116 0.382438 
96.512064 50.358246 218.591057 -0.942448 0.298281 -0.151061 
96.599331 50.275176 218.263548 -0.944877 0.275257 -0.177315 
101.111596 51.735986 218.795183 0.401663 0.320498 0.857874 
101.801158 51.739437 218.691951 0.148905 0.137324 0.979270 
102.543637 51.805071 218.704171 -0.046460 -0.032671 0.998386 
103.322247 51.930109 218.814610 -0.174665 -0.166427 0.970461 
108.517043 53.995622 218.547283 0.408154 -0.360637 0.838660 
78.217359 44.091850 218.532357 0.857160 0.418642 0.300025 
96.606939 49.182842 218.141362 -0.938363 0.340259 -0.060814 
107.780514 51.998284 218.432300 0.433457 -0.635320 0.639127 
113.032479 54.320174 218.389069 -0.817511 0.304520 0.488818 
113.034832 53.903415 218.525969 -0.810044 0.295612 0.506401 
77.776560 44.487870 218.652552 0.838498 0.409613 0.359358 
96.545245 49.714892 218.500617 -0.942602 0.293817 -0.158661 
101.980601 51.212314 218.950635 0.433911 0.402137 0.806230 
102.697482 51.203581 218.843397 0.147798 0.114837 0.982328 
103.453912 51.289238 218.844691 -0.031744 -0.091702 0.995280 
104.247879 51.453350 218.929366 -0.135198 -0.266269 0.954370 
107.485311 52.252276 218.725889 0.383314 -0.484957 0.786058 
113.134834 54.160223 218.696310 -0.886318 0.270430 0.375911 
78.624937 43.636286 218.682094 0.865639 0.417862 0.275791 
96.536812 48.407279 218.319593 -0.932169 0.362009 0.003276 
107.436698 51.596177 218.470366 0.380590 -0.705760 0.597539 
112.910466 53.367300 218.509198 -0.726144 0.238175 0.644971 
78.958054 43.334883 218.435751 0.895019 0.391668 0.213394 
106.539024 51.028506 218.617270 0.218307 -0.659681 0.719141 
106.996073 51.473801 218.671382 0.263369 -0.688204 0.676027 
112.927577 52.636443 218.655267 -0.713965 0.194553 0.672609 
96.520740 48.915241 218.645357 -0.951214 0.302209 -0.062146 
102.851158 50.665445 219.086351 0.443600 0.344831 0.827231 
103.553697 50.688216 218.945839 0.178557 0.045186 0.982891 
104.301070 50.807772 218.891985 0.040282 -0.188173 0.981309 
105.121505 51.034956 218.904112 -0.015873 -0.403717 0.914746 
107.288727 51.862880 218.711763 0.351192 -0.590040 0.726992 
79.310727 42.869306 218.701976 0.896828 0.389674 0.209414 
96.468511 47.861148 218.391634 -0.901905 0.427392 0.062482 
106.381202 50.538126 218.440732 0.277055 -0.632857 0.723003 
112.740949 52.286126 218.522036 -0.619443 0.217336 0.754357 
96.333845 47.212224 218.914076 -0.850503 0.484131 0.205578 
96.392120 47.506988 218.565792 -0.877808 0.470276 0.091072 
105.379742 49.640871 218.665805 0.416513 -0.266782 0.869105 
105.944406 50.049694 218.454998 0.338801 -0.483070 0.807377 
96.468788 48.003821 218.854610 -0.931580 0.354860 0.078955 
103.714711 50.068741 219.163356 0.485973 0.197352 0.851400 
104.266461 50.251474 218.948104 0.235500 -0.053386 0.970407 
105.080520 50.266361 218.792006 0.219555 -0.297665 0.929081 
105.844922 50.672405 218.692738 0.161468 -0.535296 0.829088 
113.042670 52.105334 218.919760 -0.713315 0.232256 0.661241 
79.699009 42.370914 218.988001 0.883314 0.414589 0.218796 
96.090617 46.532210 218.886456 -0.770216 0.591689 0.238056 
105.412223 49.028702 218.728238 0.553690 -0.063884 0.830269 
112.654639 51.678450 218.628976 -0.590575 0.266642 0.761658 
80.084434 42.010366 218.678940 0.874060 0.454526 0.171539 
95.804526 45.955583 218.944690 -0.700373 0.674666 0.233029 
96.286085 46.909798 219.191848 -0.811696 0.507213 0.289628 
104.650453 49.533534 219.003507 0.446267 -0.038372 0.894077 
113.141286 51.480652 219.220486 -0.679560 0.272520 0.681124 
80.452048 41.623663 218.980663 0.828951 0.519926 0.206196 
95.545551 45.551203 218.717687 -0.664739 0.724369 0.182789 
105.502523 48.429174 218.950812 0.556328 0.202408 0.805934 
112.817045 50.906605 219.112972 -0.559794 0.395189 0.728324 
112.041516 50.173698 218.881451 -0.379735 0.589321 0.713093 
112.537985 50.392722 219.160060 -0.462714 0.544721 0.699410 
95.626975 45.609661 219.208567 -0.645732 0.713671 0.271484 
104.961011 48.696574 219.142221 0.565599 0.084891 0.820299 
113.216478 51.084938 219.448272 -0.653262 0.360002 0.666069 
80.783895 41.310237 219.315650 0.778591 0.572955 0.255964 
95.289612 45.162967 218.998015 -0.607169 0.767265 0.206520 
105.748916 48.036497 219.138228 0.435450 0.417094 0.797757 
111.507872 49.790725 218.799704 -0.327088 0.665725 0.670689 
81.259746 41.019236 219.164033 0.730941 0.643102 0.228352 
81.780899 40.739078 218.966223 0.705301 0.685975 0.178854 
95.062406 44.835276 219.381296 -0.545587 0.797212 0.258435 
106.235329 47.931077 219.138767 0.268543 0.574392 0.773278 
106.869841 47.951516 219.142817 0.128599 0.685236 0.716878 
107.639709 48.064263 219.198378 0.032658 0.775568 0.630418 
108.379537 48.290500 219.124492 0.004041 0.836896 0.547348 
109.121172 48.508252 219.135836 -0.035512 0.860978 0.507400 
109.887629 48.756159 219.188543 -0.081395 0.859607 0.504432 
110.653381 49.046745 219.253314 -0.142889 0.840449 0.522712 
111.360421 49.427881 219.217172 -0.237563 0.787830 0.568232 
95.430640 45.281703 219.439433 -0.592890 0.747664 0.299133 
105.275086 48.024857 219.361101 0.477659 0.265446 0.837485 
111.919637 49.780169 219.232067 -0.310486 0.715596 0.625716 
112.425476 50.036728 219.438232 -0.375576 0.684460 0.624865 
82.139878 40.514037 219.307394 0.701646 0.669700 0.243301 
94.610187 44.370840 219.126236 -0.486737 0.852680 0.189803 
82.663417 40.235526 219.147343 0.710181 0.670525 0.214569 
93.420138 43.312422 219.657611 -0.388245 0.877295 0.282168 
93.877307 43.696818 219.476476 -0.402328 0.881059 0.248731 
94.290386 44.061059 219.322707 -0.443843 0.867951 0.222856 
105.392641 47.534362 219.659613 0.335617 0.342235 0.877631 
105.899011 47.630394 219.506540 0.263509 0.485468 0.833597 
106.635080 47.619210 219.553370 0.096036 0.647730 0.755793 
107.322167 47.740314 219.607563 -0.010192 0.747972 0.663652 
83.019845 39.984846 219.516847 0.703609 0.666162 0.247311 
92.897254 42.922078 219.265784 -0.411475 0.886800 0.210417 
83.602744 39.668988 219.318833 0.703477 0.681861 0.200464 
91.668283 41.700677 219.817599 -0.485427 0.828512 0.279156 
92.064585 42.113226 219.696234 -0.471547 0.833242 0.288705 
92.475366 42.533640 219.495794 -0.449406 0.854177 0.261564 
84.066210 39.403831 219.725068 0.638250 0.750256 0.172489 
91.257029 41.303304 219.422160 -0.514360 0.837825 0.182982 
84.613037 39.194736 220.097910 0.522830 0.843233 0.124928 
90.902603 40.930904 219.563583 -0.472820 0.861760 0.183879 
85.188493 39.057015 219.918821 0.404770 0.909611 0.093645 
85.795782 39.005902 219.818841 0.269192 0.960695 0.067837 
86.444295 39.046538 219.776607 0.150420 0.987413 0.048886 
87.134407 39.169132 219.774642 0.062561 0.997373 0.036517 
87.857770 39.356734 219.795044 -0.001833 0.999458 0.032880 
88.594691 39.596136 219.821954 -0.063844 0.997028 0.043108 
89.314408 39.884184 219.837392 -0.145044 0.986747 0.072753 
89.978428 40.222974 219.816377 -0.253436 0.959901 0.119834 
90.506994 40.577945 219.714796 -0.380317 0.909129 0.169832 
90.813598 82.322252 212.861378 0.305801 -0.917201 0.255397 
91.507085 82.570787 212.589593 0.061215 -0.984131 0.166549 
92.136163 82.609514 212.363125 -0.262597 -0.958928 0.107236 
90.514652 81.828699 212.585789 0.504667 -0.766437 0.397348 
92.609450 82.591819 212.680104 -0.567207 -0.822553 -0.041026 
93.199687 82.262064 212.422783 -0.783631 -0.618048 -0.062765 
90.185735 81.842055 212.991562 0.468258 -0.777256 0.420248 
90.321707 81.349312 212.476939 0.652305 -0.588393 0.477798 
93.594210 81.864381 212.684486 -0.923472 -0.371082 -0.097454 
90.070192 80.912033 212.653991 0.688236 -0.449281 0.569629 
89.761178 81.348340 213.112164 0.545040 -0.587985 0.597667 
90.068260 81.346505 212.799761 0.613679 -0.595839 0.518049 
90.120301 80.228661 212.569150 0.716116 -0.289593 0.635071 
93.928461 81.314018 212.884358 -0.983731 -0.164549 -0.072084 
89.671315 80.540110 213.006148 0.602305 -0.410576 0.684584 
90.071187 79.270782 212.756657 0.640142 -0.164774 0.750378 
94.145258 80.676462 213.040928 -0.998204 0.028553 -0.052673 
89.239872 79.441049 213.275964 0.457885 -0.266998 0.847970 
89.747545 79.679073 212.945717 0.591863 -0.246182 0.767524 
90.088127 78.638680 212.895594 0.587023 -0.103286 0.802954 
94.262071 79.988473 213.206731 -0.987895 0.154213 -0.016780 
89.943807 78.252845 213.079161 0.504733 -0.100459 0.857410 
88.868636 78.526113 213.488847 0.331216 -0.212540 0.919306 
89.315589 78.716937 213.303498 0.413177 -0.184824 0.891698 
89.693133 78.863418 213.092736 0.516728 -0.162827 0.840524 
90.125417 77.626709 213.145165 0.461227 -0.050612 0.885838 
94.301542 79.370298 213.361855 -0.964511 0.261583 0.035953 
89.763333 77.368993 213.350686 0.354393 -0.085131 0.931214 
94.279624 78.934335 213.501010 -0.920625 0.387145 0.050674 
87.240338 76.891274 213.886868 0.141640 -0.263551 0.954190 
87.905645 77.270607 213.781458 0.178497 -0.222509 0.958451 
88.532629 77.734931 213.636432 0.239458 -0.192815 0.951568 
89.023023 77.893960 213.499226 0.298098 -0.161889 0.940707 
89.491049 78.058500 213.320654 0.386861 -0.133767 0.912384 
94.286609 79.264918 213.729429 -0.957834 0.284074 -0.043081 
89.834000 76.843073 213.430563 0.301502 -0.082108 0.949924 
94.171647 78.416712 213.435481 -0.874209 0.467283 0.131929 
85.812035 75.638295 213.958652 0.070844 -0.350317 0.933948 
86.683332 76.186606 213.926249 0.091008 -0.279365 0.955862 
87.414912 76.248851 213.857478 0.092307 -0.213906 0.972483 
87.946816 76.561204 213.796770 0.129434 -0.191801 0.972861 
88.601188 76.895290 213.683260 0.185020 -0.162611 0.969188 
89.232166 77.301625 213.512692 0.272090 -0.129418 0.953529 
90.089755 76.348301 213.461346 0.276453 -0.056939 0.959339 
93.984134 77.713312 213.403329 -0.828343 0.484818 0.280713 
85.076534 74.399151 213.837098 0.054450 -0.295934 0.953655 
85.409083 74.481214 213.837030 -0.012735 -0.253701 0.967199 
90.633214 76.138536 213.374549 0.292757 0.008655 0.956148 
91.040648 75.885675 213.361953 0.252200 0.089017 0.963572 
93.885492 77.243302 213.660777 -0.766008 0.581265 0.274522 
85.073097 74.858057 213.918405 0.091829 -0.390047 0.916205 
85.850856 74.884677 213.874886 -0.017937 -0.267975 0.963259 
86.556581 75.306949 213.892427 0.018764 -0.225293 0.974110 
87.307061 75.652616 213.869046 0.057043 -0.198175 0.978505 
87.966239 75.912589 213.820094 0.091009 -0.172856 0.980734 
88.631155 76.144734 213.739631 0.139800 -0.146881 0.979225 
89.415073 76.400143 213.593450 0.212114 -0.107725 0.971289 
94.003541 77.525984 213.895875 -0.862804 0.484334 0.144879 
84.738160 74.127835 213.861234 0.098710 -0.281772 0.954390 
85.834252 74.437195 213.848875 -0.056804 -0.173209 0.983246 
91.201563 75.582287 213.454778 0.167504 0.146937 0.974860 
93.620343 76.800877 213.606066 -0.637274 0.650203 0.413664 
83.832723 73.385588 213.918246 0.148391 -0.315629 0.937208 
84.200724 73.678515 213.896417 0.097958 -0.286897 0.952940 
85.939351 74.126510 213.876505 -0.065163 -0.071531 0.995308 
89.577680 74.895013 213.773803 0.101913 -0.090818 0.990639 
90.131160 75.117397 213.693723 0.130722 -0.038714 0.990663 
90.745518 75.334729 213.584534 0.161634 0.054611 0.985339 
83.735607 73.767738 214.016453 0.236873 -0.446010 0.863114 
84.368018 74.309125 213.948054 0.167081 -0.412175 0.895654 
86.456739 74.448785 213.897548 -0.028980 -0.128717 0.991258 
87.281532 74.911647 213.887220 0.028270 -0.156978 0.987197 
87.999288 75.267113 213.848474 0.065090 -0.156995 0.985452 
88.551940 75.564277 213.793552 0.103333 -0.144995 0.984022 
89.337075 75.545780 213.714407 0.141655 -0.104870 0.984346 
90.174999 75.790242 213.556156 0.216805 -0.034839 0.975593 
90.780301 75.730237 213.461665 0.234644 0.051380 0.970722 
83.501959 73.034757 213.966810 0.183324 -0.309059 0.933207 
85.706633 73.831582 213.889946 -0.048161 -0.031390 0.998346 
89.418691 74.456716 213.832315 0.074705 -0.107868 0.991354 
93.287823 76.201993 213.773044 -0.554267 0.653019 0.516095 
82.686457 72.271853 214.069567 0.253075 -0.400973 0.880440 
83.006994 72.554738 214.033394 0.187352 -0.356116 0.915468 
85.176247 73.094152 213.972270 -0.037692 0.004193 0.999281 
85.617134 73.454628 213.947468 -0.043052 0.007874 0.999042 
87.652435 73.536021 214.001176 0.073904 -0.092234 0.992991 
88.178969 73.863305 213.941965 0.068692 -0.117057 0.990747 
88.855526 74.194552 213.882867 0.066140 -0.123810 0.990099 
92.273948 74.955813 214.246818 -0.458054 0.695758 0.553270 
92.721338 75.450705 214.050098 -0.383496 0.746353 0.543956 
93.091761 75.769728 214.111674 -0.498190 0.754682 0.426921 
82.561654 72.578181 214.212744 0.362658 -0.511842 0.778779 
83.130931 73.175882 214.105879 0.293030 -0.468330 0.833547 
86.191566 73.673389 213.966105 -0.031476 -0.026799 0.999145 
86.726615 73.943783 213.957705 0.006741 -0.071945 0.997386 
87.327984 74.121633 213.943276 0.037482 -0.098924 0.994389 
88.078582 74.562925 213.888365 0.057723 -0.132533 0.989496 
88.835723 74.932273 213.821441 0.087154 -0.125606 0.988245 
93.375628 76.080045 214.229633 -0.654730 0.693649 0.300300 
82.436225 71.963480 214.122729 0.302456 -0.378583 0.874754 
84.701489 72.732016 213.988658 -0.044683 -0.000992 0.999001 
87.585737 72.965506 214.078339 0.102382 -0.076984 0.991762 
91.769550 74.492917 214.122883 -0.428667 0.468903 0.772253 
82.167076 71.516652 214.173935 0.307596 -0.322981 0.895024 
83.987107 71.893891 214.083369 -0.027259 0.026722 0.999271 
84.499644 72.225329 214.065476 -0.046682 0.032175 0.998392 
81.354567 71.439537 214.512341 0.273195 -0.556640 0.784549 
81.992059 71.878997 214.335190 0.386822 -0.497118 0.776686 
85.120222 72.341635 214.118612 -0.049859 0.037392 0.998056 
85.790213 72.913215 214.073099 -0.031173 0.017541 0.999360 
86.420358 73.059762 214.088516 0.015188 -0.009009 0.999844 
86.965341 73.440866 214.031590 0.040539 -0.052007 0.997824 
91.936545 74.428361 214.405781 -0.591595 0.638154 0.492722 
82.228002 71.255845 214.166828 0.180103 -0.078561 0.980506 
83.459415 71.601423 214.094650 -0.010508 0.026531 0.999593 
87.562952 72.409087 214.166029 0.133610 -0.061662 0.989114 
91.484103 74.108061 214.126317 -0.412267 0.367657 0.833585 
79.111176 69.636299 214.596100 0.188824 -0.638260 0.746304 
79.743803 69.737676 214.438614 0.134690 -0.487769 0.862520 
80.376793 70.134490 214.408154 0.129212 -0.424292 0.896259 
81.074518 70.314230 214.332127 0.046819 -0.249950 0.967126 
82.564383 71.015672 214.223461 0.092307 0.081351 0.992402 
83.192123 71.156037 214.191026 0.030466 0.101667 0.994352 
87.248679 72.064348 214.255383 0.124769 -0.038555 0.991436 
91.446684 73.786368 214.280275 -0.526050 0.425151 0.736558 
80.907757 70.805746 214.450489 0.169189 -0.502231 0.848020 
81.768286 70.956588 214.308378 0.162579 -0.211104 0.963848 
83.863580 71.121676 214.262821 -0.009628 0.100821 0.994858 
84.655288 71.575574 214.234739 -0.041776 0.061412 0.997238 
85.359813 71.696343 214.288629 -0.031811 0.043339 0.998554 
85.839277 72.136040 214.236654 -0.011867 0.022404 0.999679 
86.300420 72.542204 214.183549 0.016290 0.001015 0.999867 
86.938393 72.641677 214.167465 0.076483 -0.031732 0.996566 
91.678218 74.088480 214.343910 -0.589159 0.535641 0.604963 
78.846199 69.110488 214.458979 0.134529 -0.479088 0.867397 
81.534194 70.242440 214.354614 -0.093522 -0.010322 0.995564 
87.327642 71.480554 214.364102 0.148908 -0.012246 0.988775 
91.308362 73.340730 214.374872 -0.601043 0.319904 0.732399 
76.818572 68.011786 214.715644 0.273738 -0.710439 0.648340 
77.344334 68.239286 214.598152 0.218365 -0.621004 0.752775 
77.831202 68.452526 214.511609 0.176238 -0.560505 0.809182 
78.295393 68.829640 214.522366 0.174305 -0.544592 0.820388 
80.543047 69.227923 214.413342 -0.135874 0.117881 0.983688 
81.064126 69.529941 214.453146 -0.151292 0.212352 0.965410 
81.500879 69.838528 214.454268 -0.141362 0.224867 0.964081 
78.560406 69.289267 214.614503 0.202333 -0.665774 0.718197 
82.206780 70.138996 214.511776 -0.026659 0.217936 0.975599 
83.272098 70.495656 214.438582 0.063171 0.196767 0.978413 
84.069603 70.460477 214.486154 0.041388 0.154405 0.987140 
84.639855 70.754721 214.442682 -0.009842 0.099256 0.995013 
85.328267 71.050557 214.434255 -0.016470 0.062802 0.997890 
85.990099 71.394474 214.404877 0.013618 0.032571 0.999377 
86.618667 71.898734 214.313793 0.060744 -0.004032 0.998145 
76.546678 67.560938 214.604750 0.237425 -0.595930 0.767135 
80.112179 68.935193 214.386531 -0.125925 0.067330 0.989752 
87.514106 70.933333 214.473884 0.181242 0.021170 0.983211 
91.270196 72.672547 214.499176 -0.715563 0.131886 0.685985 
75.601128 67.023181 214.834057 0.337093 -0.811714 0.476957 
76.079090 67.263362 214.689332 0.294688 -0.679050 0.672347 
79.448354 68.307771 214.443844 -0.075711 0.137220 0.987643 
79.898279 68.571170 214.441014 -0.135645 0.196577 0.971060 
87.970501 70.643979 214.482875 0.235989 0.033435 0.971180 
80.378029 68.668584 214.585484 -0.237124 0.350680 0.905978 
80.897347 69.069890 214.601487 -0.226440 0.359279 0.905342 
81.574592 69.322467 214.780994 -0.191928 0.465133 0.864185 
82.390963 69.526578 214.921341 -0.005143 0.528729 0.848775 
83.199399 69.725819 214.858044 0.155576 0.443974 0.882430 
84.012220 69.928031 214.713378 0.131824 0.261984 0.956027 
84.706076 70.092223 214.659544 0.048747 0.169082 0.984396 
85.384047 70.331658 214.630965 0.013193 0.112246 0.993593 
86.092305 70.624578 214.594985 0.034839 0.074217 0.996633 
86.842595 70.984425 214.510576 0.099427 0.034226 0.994456 
75.339502 66.660487 214.691598 0.260767 -0.774638 0.576139 
78.977088 67.988264 214.458162 -0.068698 0.111273 0.991413 
88.269414 70.144410 214.588290 0.280155 0.095961 0.955146 
91.408654 71.905928 214.606586 -0.801587 -0.042594 0.596358 
74.386154 65.947960 214.822339 0.360508 -0.904740 0.226890 
74.944680 66.214464 214.603156 0.252152 -0.812086 0.526247 
79.371091 67.813716 214.638809 -0.182261 0.369442 0.911205 
79.885445 68.177565 214.639032 -0.206645 0.400445 0.892716 
80.353320 68.158695 214.918249 -0.284352 0.522753 0.803662 
80.933848 68.626192 214.939802 -0.296434 0.531879 0.793242 
84.179271 69.381356 215.058366 0.302280 0.468284 0.830263 
84.799513 69.535494 214.906183 0.139410 0.279356 0.950013 
85.469323 69.698619 214.855299 0.056670 0.203983 0.977333 
86.188969 69.911202 214.818169 0.057346 0.160539 0.985362 
86.930713 70.169650 214.738931 0.115938 0.116878 0.986356 
87.558513 70.421254 214.613738 0.193558 0.073817 0.978308 
73.964177 65.457737 214.590937 0.356491 -0.864306 0.354809 
78.815733 67.505436 214.613517 -0.132922 0.305839 0.942759 
88.637175 69.652882 214.711879 0.336276 0.189200 0.922562 
91.725584 71.035375 214.680017 -0.835964 -0.198616 0.511581 
72.948832 64.884255 215.066174 0.310594 -0.945878 0.094048 
73.500808 65.195858 214.810203 0.366119 -0.905513 0.214485 
78.136439 66.549761 214.889406 -0.245359 0.420965 0.873262 
78.755721 67.000923 214.910093 -0.242470 0.483601 0.841034 
89.165105 69.437430 214.672776 0.380939 0.210067 0.900421 
79.245489 67.375545 214.886187 -0.234596 0.520793 0.820816 
79.837589 67.670191 215.012248 -0.259653 0.578448 0.773291 
84.632756 69.045711 215.310172 0.426556 0.659819 0.618618 
84.980659 69.112455 215.164170 0.243365 0.451396 0.858496 
85.558091 69.202592 215.102490 0.109800 0.354427 0.928615 
86.262096 69.328652 215.077792 0.087889 0.317211 0.944274 
87.062636 69.485196 215.020258 0.142879 0.277050 0.950173 
87.908419 69.698377 214.846997 0.253752 0.209161 0.944384 
72.506255 64.403597 214.631393 0.231910 -0.928232 0.290866 
77.613720 66.228564 214.835281 -0.196312 0.394685 0.897600 
89.545875 69.096856 214.753351 0.421866 0.279358 0.862547 
92.295719 70.249791 214.946661 -0.862791 -0.339042 0.375023 
65.235852 61.812037 215.017595 0.106896 -0.977140 -0.183770 
65.733179 61.991308 214.905680 0.059139 -0.982416 -0.177093 
66.324433 62.186212 214.811358 0.037118 -0.981196 -0.189411 
66.851637 62.351328 214.703473 0.015679 -0.982337 -0.186464 
67.572204 62.553222 214.906939 0.004184 -0.978502 -0.206195 
68.387643 62.792707 214.895641 0.020544 -0.981133 -0.192237 
69.259147 63.073501 215.014538 0.059789 -0.983960 -0.168073 
70.063323 63.363073 214.925947 0.090346 -0.992409 -0.083433 
70.780059 63.636484 214.838809 0.111513 -0.993546 0.020792 
71.306749 63.817899 214.699209 0.118540 -0.983946 0.133412 
71.916329 64.132732 214.776750 0.203292 -0.963125 0.176248 
76.999861 65.322797 215.157648 -0.330602 0.498531 0.801355 
77.530482 65.821013 215.103483 -0.252137 0.544901 0.799694 
90.102557 68.875337 214.688577 0.445481 0.256826 0.857664 
92.715614 69.662541 214.906136 -0.800135 -0.441896 0.405601 
72.400686 64.526991 215.041679 0.263995 -0.960802 0.084655 
77.927428 66.125839 215.072135 -0.258290 0.555506 0.790380 
85.174606 68.871563 215.404160 0.400912 0.714934 0.572834 
85.622845 68.880370 215.353915 0.183055 0.583765 0.791018 
86.265649 68.926132 215.368189 0.140133 0.564500 0.813451 
87.054750 68.985776 215.362279 0.186406 0.526604 0.829422 
88.050933 68.991204 215.294460 0.311022 0.473118 0.824272 
88.889072 69.140108 214.957948 0.398651 0.333847 0.854180 
64.701366 61.566945 214.714116 0.187417 -0.967599 -0.169195 
76.538855 64.719262 215.264661 -0.421318 0.506467 0.752318 
90.327376 68.528270 214.844644 0.512349 0.362138 0.778688 
93.096298 69.347623 215.098924 -0.838232 -0.463146 0.287858 
63.180690 60.552977 215.468042 0.424685 -0.874793 -0.233194 
63.696744 60.957358 215.238663 0.320864 -0.923530 -0.210093 
64.328147 61.353808 215.060776 0.250515 -0.942280 -0.222149 
76.197311 64.216309 215.298363 -0.473905 0.482303 0.736748 
90.699539 68.349681 214.823852 0.479764 0.383768 0.789017 
64.901365 61.663208 215.175077 0.183129 -0.953690 -0.238620 
67.708704 62.562395 215.494112 0.006813 -0.964629 -0.263524 
68.271948 62.731528 215.455764 0.024789 -0.965346 -0.259794 
68.925445 62.942096 215.471246 0.058554 -0.965324 -0.254405 
76.931881 64.936254 215.426191 -0.387436 0.604880 0.695711 
89.131082 68.568633 215.436482 0.467622 0.552706 0.689816 
89.785141 68.643390 215.032273 0.506654 0.416958 0.754618 
62.679004 60.090935 215.076389 0.531450 -0.823560 -0.198267 
75.899701 63.868730 215.287019 -0.421016 0.522003 0.741794 
91.016357 68.044332 214.974389 0.543404 0.422521 0.725389 
93.534211 69.003790 215.330413 -0.824702 -0.529647 0.198344 
62.345756 59.637722 215.403874 0.645118 -0.729835 -0.226194 
75.150283 63.352847 215.106525 -0.303577 0.543485 0.782602 
75.564896 63.517124 215.277606 -0.367545 0.563950 0.739508 
93.884544 68.586787 215.123784 -0.763740 -0.573776 0.295775 
76.181922 63.969278 215.474876 -0.484317 0.559810 0.672346 
90.012840 68.165670 215.529047 0.565447 0.581498 0.584919 
90.463323 68.230654 215.100174 0.561546 0.477802 0.675553 
62.025055 59.116670 215.114264 0.753702 -0.630134 -0.186720 
74.714260 62.804450 215.293239 -0.345675 0.585219 0.733503 
91.384163 67.708058 215.113165 0.601756 0.448794 0.660662 
